# 3D point list with one line of data per point:
#   POINT3D_ID, X, Y, Z, R, G, B, ERROR, TRACK[] as (IMAGE_ID, POINT2D_IDX)
# Number of points: 362, mean track length: 4.3738517212582355
6275 6.1651412577410323 -2.1870582528149591 3.0853403359299767 54 79 60 0.42709127019664916 7 10216 29 9489 5 6301
6276 2.6258662476384522 -1.5189380535225327 4.564423236853913 108 119 109 0.67791925091547989 7 10268 29 9504 4 5744 3 7905
6277 7.079467702880839 -2.0532325904869824 2.6993135841534839 18 20 17 1.4301817487757413 7 9333 29 9513 5 6350 4 5711
6278 7.079467702880839 -2.0532325904869824 2.6993135841534839 18 20 17 1.4301817487757413 7 9334 29 9514 5 6351 4 5710
6279 3.4858588807621151 -3.0787685964923441 9.8610118646120153 95 92 80 1.5110912533555241 7 10971 29 9530 6 5082 30 5630 5 6386 31 5559 16 3093
6280 3.6314922829760956 -3.0736480861989435 9.7903607211184802 25 28 17 1.5564955121415296 7 10250 29 9531 6 5086 30 3950 31 5565
6281 2.706443374911855 -1.4684844735184259 4.53401513949819 128 143 136 0.88421890942919268 7 10272 29 9541 6 6614 28 5702 5 4940 25 8400 4 5753
6283 3.0221302567582149 -1.4973439797380941 4.3648730361917263 121 144 128 0.94700874374120736 7 10280 29 9548 6 7635 28 5626 30 6586 5 4950 25 9145 4 5758
6284 3.021592328607889 -1.4969168838862117 4.3639779856650049 121 144 128 1.0037913945893959 7 10281 29 9549 6 7634 28 5625 30 6585 5 4949 25 9144 4 5759 3 7918
6285 3.0988310438150943 -1.4935366106002144 4.3240074133774851 121 143 132 0.43066941736729553 7 10284 21 7025 29 9550
6287 3.187476458822013 -1.4896778099452279 4.2755483624711283 120 138 125 1.196338885583333 7 10287 29 9554 5 4959 8 1693 4 5766
6288 3.3203662279392696 -1.4099523686464561 4.2139646381282452 130 153 137 0.1853223574392511 7 10301 29 9558 5 4964
6290 3.9796721641878605 -1.4576661508180593 3.8606797521802392 108 134 135 0.43506907054765415 7 10308 29 9568 5 4975 4 3058 3 6008
6291 4.0128594426772786 -1.4585699314197824 3.8484116164755777 102 129 128 0.69152365396072246 7 10309 29 9569 6 8280 30 7313 5 4979 4 5779 17 7542 3 6009
6292 4.4669463042168749 -1.4627140687610007 3.5674591983931609 12 15 13 2.4229680157154254 7 10318 29 9572 6 8901
6293 4.5427336740865139 -1.4558025201351283 3.5827023761441268 96 110 93 0.89135553108272736 7 9439 29 9586 6 8288 5 4986 4 3071
6294 4.5441739328238535 -1.3906477002295552 3.5947173730881357 106 122 105 0.76939771653981004 7 10324 29 9587 5 6459 4 5846 3 6055
6295 4.6961440101441063 -1.4626022941950747 3.490595575135691 10 12 9 0.55621218466244904 7 10326 29 9589 5 6460 4 5789 16 4683
6296 4.8498834309004799 -1.3145963234759568 3.4461456315749226 99 120 109 0.63228791316061028 7 10360 29 9594 5 5000 4 3155 16 4686 3 2298
6297 4.9561289446437193 -1.4139986870353252 3.3598257722211455 5 11 7 0.23335019172244278 7 10329 29 9596 5 6466 4 5854 17 7588 3 6065
6299 5.1512802922112417 -1.4084815789089637 3.2681353433331513 0 3 0 0.66531584706412472 7 10336 29 9602 5 6470 16 4688
6300 5.3047247263536956 -1.4008144215386855 3.183425600371895 1 7 3 0.17346243050088414 7 10341 29 9607 5 6480
6301 5.3548270691089295 -1.3999105498306674 3.1582323153165364 1 8 1 0.24328542495110309 7 10344 29 9610 5 6482
6302 5.3991874916891041 -1.399911593626604 3.137349005497331 4 9 3 0.22031766737750927 7 10346 29 9612 5 6484 4 5869
6303 5.3761942373954756 -1.3808457421888094 3.1487442074906076 124 156 160 0.39080749238967399 7 10345 29 9613 5 6483 4 3161 3 2302
6304 5.4437462225420719 -1.3998600627766347 3.1118639987423968 4 11 4 0.665642101960085 7 10348 29 9614 5 6489 4 5870 3 6090
6305 5.4227183542945285 -1.3831723731098553 3.1262910297198028 116 152 159 0.46323266543459518 7 10347 29 9615 4 3162 3 2304
6306 6.04886836039391 -1.34605353870906 2.6703132926782001 92 112 96 0.64280094694180157 7 10354 29 9618 4 3169
6307 6.2745738711333097 -1.4394053291794326 2.5463692018155211 23 36 68 0.36314812203662322 7 10356 29 9619 5 6496 4 3081
6308 5.2832227110394294 -1.3206954055721025 3.2074010289052168 98 131 136 0.21278061332155471 7 10365 29 9631 5 6486
6309 5.4170752194574012 -1.3165131907540986 3.1332117961127173 114 152 155 0.53745892580358534 7 10369 29 9633 4 3165
6310 5.6797026722979549 -1.2400837856836491 3.0203568916078316 13 17 14 0.48159085668022145 7 10375 29 9637 5 6531 4 5886 3 6102
6311 6.3418419862470641 -1.1964701276297574 2.551310471171659 114 130 120 0.50044463732428013 7 9501 29 9640 5 6536 4 3178 3 2322
6312 6.9252380578315877 -1.1629419916318937 2.2437409789865477 63 81 80 0.91316899756737724 7 9514 29 9644 5 6541 4 3186 3 2334
6313 7.0529389750958051 -1.1613062309059419 2.1664697779058688 68 86 86 0.89897760480950528 7 9516 24 8084 29 9647 5 6543 4 3189 4 5900 3 6119 17 6521
6314 7.4714661778845022 -1.1799863207493286 1.9352746494548139 52 64 62 0.79007493537506068 7 10392 29 9649 5 6549 4 5905 3 2342
6315 3.1520872688087351 -0.95205628391889485 4.2502512696799286 10 14 13 1.3697429958965761 7 10449 29 9663 6 7772 30 7413 4 5949 5 5118 16 4864 3 9051
6316 5.3519770298983973 -1.0127182836693716 3.2180942696560795 2 9 2 2.0669936335571606 21 8899 29 9669
6317 5.3844484313311671 -1.0008317748107611 3.1865678180966075 7 13 11 0.88950064048521971 7 10410 4 3248
6318 7.0739711273300419 -1.1376235720384251 2.1566363345899271 31 37 27 0.78134372155328136 7 9518 29 9673 5 6545
6319 7.186465176235644 -1.1474733171122133 2.0839636485771482 54 69 62 0.71434042161875722 7 10387 29 9674 5 6546 4 3192 17 6525
6320 7.4123439278024943 -1.1285489706462561 1.9730645760346188 52 63 62 0.95379553940801465 7 10391 29 9675 5 6548 4 3194 4 5903 3 6121
6321 7.4222217975863636 -1.1299693502760684 1.9748076464011943 52 63 62 1.0022986982368292 7 10390 29 9676 5 6547 4 3193 4 5904
6322 2.2978731683397933 -0.92487342903310221 4.8432216084107269 71 89 88 0.69555878950253847 8 2015 29 9681 6 6842 25 7307 28 4829
6323 2.3568488265752721 -0.93694971263294513 4.8110268022733704 6 10 7 0.97254898967162584 7 10417 29 9687 6 6776
6325 2.3712322105916055 -0.902256753905468 4.7811166594404542 46 57 56 0.99381021083983823 7 9590 29 9690 6 5431
6326 2.6072770198907875 -0.85310284262239655 4.5997358475941121 131 158 165 0.2492031950639011 7 10494 29 9707 4 6034
6327 3.2053144693100064 -0.8724193890220111 4.2481185693020098 16 37 90 0.94256501974086238 7 10454 29 9727 6 7773 28 6539 7 11123 5 5234
6328 3.108634313740045 -0.86812377164520393 4.7602806175695163 131 163 174 0.25212656862868088 24 8093 29 9755
6329 4.3622809864254704 -0.79385154672419733 3.8194138893466869 106 124 110 0.30284111733587743 7 10521 29 9768 4 6072
6330 4.4013302508668737 -0.73205065951909631 3.8047900239699874 121 138 120 0.53803767288629323 7 10527 29 9774 5 6634 30 7466 4 6076
6331 4.546248411746542 -0.78013733866284518 3.7123918401047797 109 126 107 0.67185412405348133 7 9619 29 9777 30 6812 5 5241 4 3375 17 6602 3 6238
6332 4.5650958080054771 -0.79682947739351362 3.7033621472585159 5 15 10 1.4784859735073428 7 10461 29 9778 30 7473 5 6638 17 7707
6333 4.7277968664613086 -0.78746925903538445 3.6203690222525875 8 12 11 0.32521060837306842 7 10466 29 9788 4 6082
6334 4.7553052320886744 -0.78472662340959531 3.6001094629868771 3 6 4 0.37317223939616834 7 10467 29 9789 5 7582 4 7448 16 6168 17 8432
6335 4.7731687931829754 -0.76401772081440322 3.5882568672156294 108 127 108 0.20705506678999108 7 10536 29 9792 5 6647 4 6083
6336 4.8508991444828142 -0.78383614420439707 3.5523216248686538 9 14 12 0.7716563139690642 7 10469 29 9794 5 6649 4 6092 16 4884 17 7715
6337 4.8814852577447061 -0.78061755970890379 3.5387853995906946 6 12 8 0.61957323267971443 7 10470 29 9797 5 7583 4 6093 17 8436 3 9093 15 2013
6338 5.1383809042002584 -0.76595566385176195 3.3989976582383434 3 8 6 0.91466211453701152 7 10474 29 9806 5 7586 4 7451 16 6174 3 9095 15 2014
6339 5.263442706193624 -0.66105464262852887 3.3432292490709195 4 12 7 0.5396659634840606 7 10547 29 9811 4 3409 5 5279
6340 6.1082096201318459 -0.57162914788431562 2.7658723253873028 114 151 161 0.78648448370412116 7 10549 29 9814 5 7595 29 10500 4 6106
6341 5.4216756025554691 -0.45961271870731363 3.2903108978208166 14 19 13 0.14110670289358918 7 9702 29 9821 5 5376
6343 5.0721422553678952 -0.43468787332135694 3.4862747744352118 110 126 90 1.2446730247098503 7 10551 29 9853 5 6701 4 6135 17 6656 3 6314
6344 5.4221100833420115 -0.37642372427218862 3.2989146483724872 13 20 13 0.39297797371684517 24 7390 29 9856 8 5833 5 6703 7 9703 4 3512 17 7775 3 6327
6345 5.4231209049146694 -0.37657895916103579 3.2992976077052347 13 20 13 0.33969985599222918 7 9704 24 7391 29 9857 5 6704 4 3513 17 7776 3 6328
6346 5.5097354088221175 -0.37697692182384424 3.2638028022115737 13 17 14 0.48841628365908912 22 5455 23 6074 29 9859 4 6147 17 7778 3 8197
6347 6.5058452528470703 -0.17309736211146257 2.5838841454425978 23 18 24 1.4495951555210418 7 10581 29 9865 5 7681 4 6157 17 6708
6348 6.7533883896280464 -0.21497977341647606 2.3732837518226901 29 41 35 0.51230996501973991 7 10559 29 9867 4 6159
6349 2.7269601717552572 -0.27827939591854861 4.7165406701760997 84 94 79 0.77755000371648486 7 10644 29 9874 6 7077 28 6069 30 6952 5 6844 25 8751 4 6332
6350 2.9415213406919536 -0.26484900778094417 4.6058740077874845 82 96 85 1.0522312691223452 24 8199 29 9880 21 7548 28 6075 7 10649 6 7976 30 6959 5 6850 25 8756 8 2511 4 7519 17 9009 3 9167 15 2327
6351 3.219946707173817 -0.25070327582323743 4.4739524468985641 87 101 90 0.63846448685017243 7 10658 29 9888 28 6104
6352 3.4000744197462143 -0.24279115251185768 4.3699087332924256 86 104 92 0.67868236248314184 7 10584 22 5500 23 5176 24 7427 29 9891 6 7126 28 6111 30 6067 5 5573 25 8766 4 3609 3 6440 17 7866
6353 3.8515948571573801 -0.22308013187445985 4.1296315882222352 85 108 98 0.36988834125892894 7 10587 29 9897 30 6983 5 5582 4 6214 17 7798 3 6455
6354 4.0052385228794742 -0.21544448832608473 4.0524633439482045 76 96 85 0.29176168655032225 7 10589 29 9900 5 5451
6355 4.0457488150041083 -0.21431877332240137 4.0349496200083124 81 96 93 0.46114726435458725 7 10590 29 9901 30 7660 5 5452 4 6226 16 3763 17 7805 3 6459
6356 4.5027063741590529 -0.24557028114951079 3.6997905463521716 14 18 17 0.54751784292438255 7 10600 29 9911 5 6772 4 6239
6358 4.5711363492515869 -0.22310164020183326 3.67504194913937 85 106 99 0.21445556003122243 7 10603 29 9913 5 6773
6359 4.6111308636969763 -0.22215228606191478 3.6525147819919113 86 109 96 0.3211678419057673 7 10602 29 9914 5 6774
6360 4.6923633135207892 -0.21619422076543465 3.6123425462890353 77 98 89 0.089517058825622706 7 10614 29 9915 4 6245
6361 4.7652343695972874 -0.13761605131116705 3.5783374946762745 30 42 32 0.85673078398693447 7 10615 29 9918 5 6914 4 6259 16 6377 17 6760 3 6502
6362 5.0306974872677319 -0.19963720322403927 3.4274256643059218 104 129 128 0.26591241784115061 7 10574 29 9920 5 6783 4 6255
6363 5.4049825188063938 -0.1114508489005486 3.2599609674039129 18 35 28 0.45303438614538666 24 7478 29 9926 5 5479
6364 5.4298234049226268 -0.13206728915097218 3.2424003095694962 116 146 148 0.42075001039383364 7 10620 29 9927 5 6789 4 6269 3 6512
6365 2.4514244298624681 -0.29744799491495799 4.8635219478686542 57 60 43 0.55180694142872955 8 2488 21 7538 29 9935 6 7067 28 5116 30 5994 5 5554 25 7591 4 6317
6366 2.4064784948326614 -0.20918988264135346 4.9030143502915173 77 72 34 1.7881467524401025 7 10701 29 9937 30 6945 5 6840 4 6319
6367 2.5522645300607714 -0.26331571992105862 4.8341372487650229 51 52 32 0.93731196999686162 7 10638 29 9938 28 5120
6368 2.5551576670452021 -0.22206390967716677 4.8355290502332835 77 73 39 0.79376988912024737 8 2499 21 7657 29 9941 6 7101 28 5141 25 7595
6370 3.3141025965759918 -0.20621359016775051 4.4512551550936976 103 123 107 0.14578862387476679 9 4626 17 8544
6371 3.264379919713353 -0.16815590116839318 4.4499138951199226 4 8 7 0.20083852457662402 23 6107 29 9954 17 8547
6373 3.6643717230464286 -0.16627740811204855 4.2368712862949112 121 142 131 0.52400878164886899 7 10667 8 4662 29 9966 6 8647 30 6979 5 5576 4 6207 17 7868 3 6451
6374 3.7009181781748177 -0.1648529689356649 4.2165719930307404 117 140 124 0.24802813444549998 7 10670 29 9967 5 5579
6375 3.6784969976322621 -0.14766360085026212 4.2230998491403353 1 5 4 0.71421713185582503 7 10669 29 9968 28 6734
6376 3.7361457071872315 -0.15965578769938768 4.19674462633213 110 129 120 0.30485980377708793 7 10671 29 9969 6 8651
6377 3.8169298878081515 -0.15921664958440213 4.162077162253274 108 134 131 0.46474732548890463 7 10674 29 9972 5 6899 30 7645 4 6213
6378 3.8529253969936517 -0.15559434082328016 4.1404057514863588 108 134 129 0.64359608996679285 7 10676 8 5947 29 9973 6 8659 21 9170 4 6218 5 6900 17 7871 3 6461
6379 3.8316938358026706 -0.13902098897409917 4.1521385025222983 1 5 4 0.71851082284004075 7 10675 29 9975 28 6738 5 6901 17 8570 3 8321
6381 3.6982946542432158 -0.17396240345314465 3.9837286828151042 98 122 110 0.95728275429351828 8 4660 30 6987
6383 3.9705596726012149 -0.15037000694509212 4.0865469132139616 102 127 124 0.48011611824310851 7 10679 29 9981 5 6906 30 7654 4 6223
6384 4.0098112796587797 -0.15134555580163539 4.0648618428743584 99 122 114 0.4384575891025202 7 10680 29 9982 5 5586 4 6227 30 7655
6385 4.0269369036594007 -0.13081449036637957 4.0570338146731233 3 3 2 1.1114921433395821 7 10681 29 9984 6 9198 28 7201 5 6908 30 7657 4 6228 3 6470
6386 4.0468263408944329 -0.14791152194013119 4.0452767109633445 91 112 113 0.73921054043362189 7 10591 29 9985 30 6991 5 6907 30 7656 4 6229 17 7877 3 6471
6387 4.4372811961709022 0.024323541525730456 3.7785873864643937 51 63 58 0.94760653945399265 23 6844 29 9989 5 6912 4 6358 17 7881
6388 6.0163624656501762 0.035517124796260506 2.8369948198368666 108 134 137 0.43995775776865331 7 9796 29 9993 5 6916 4 3661
6389 6.2778341814724312 0.039683275344063969 2.7391544264002388 106 131 132 0.65421235908932462 7 10624 29 9998 5 6918 4 6279 3 6527 17 6772
6390 2.350971069975436 -0.086794831482609205 4.9614072899234847 25 28 17 1.0095860852027629 7 10745 29 10005 6 5914 28 5234 30 6130 5 5663 25 5858 4 6418
6391 2.4011725946903217 -0.077060760573569795 4.9341139821964299 30 32 19 0.93977824659456877 7 10751 29 10006 6 5915 28 5242 30 6131 5 5664 25 7652 8 2699 4 6422
6392 2.559112210180198 -0.069883149901186506 4.8562372659772297 103 100 54 1.0271399112302395 21 7671 29 10013 5 3334 25 7655 4 3880 3 3363
6394 4.9483669604062017 0.23429882816022182 3.5408890796548906 24 33 30 0.58302865640675883 7 10730 29 10028 4 6379
6395 5.2479026172365355 0.22238539803755628 3.3813081990724045 45 63 51 0.67186198691861865 7 10731 29 10031 4 6383
6396 6.1756468897019348 0.40706516045890007 2.9041838868164955 37 43 41 0.36994397232230103 7 10732 29 10032 4 6388
6397 2.2093918533056693 0.035784748753595753 4.9525113357409998 92 109 103 1.24714286491444 7 11384 29 10040 6 7210
6398 2.2615998256388274 0.073651574353184063 5.0088094407369033 110 126 117 0.56844094216986285 7 10779 29 10042 6 7237 28 5239
6399 2.3568778547398606 -0.028400734189928778 4.9671696356273847 74 74 40 0.92932555228130553 8 2701 29 10043 6 7213 28 6167 30 7014 5 6968 25 8793 4 7686 16 3891
6400 2.5815773958559083 -0.0022365178277222279 4.8555684107322943 77 82 61 1.3222363851592043 21 5313 29 10044 6 7220 30 7021 5 6972 4 7689 16 3898 17 9353 3 9312
6401 4.5307316590392679 0.36962800588369343 3.7971146258951043 25 34 31 0.8612822419593037 7 10765 29 10051 30 7732 4 3901 5 5764 17 6955
6402 4.5144967245601837 0.39278618516203928 3.8054578202603269 82 104 104 1.2865873245957578 7 10766 29 10052 30 7767 5 7044 4 6444 3 6766
6403 4.5744680241900424 0.3935995724852821 3.7556824996869294 91 118 117 0.38455583251336178 7 10768 29 10053 5 7046 17 7945
6404 6.2270485640957975 0.58635890550485215 2.9208722605303041 76 89 77 0.56530605125534106 7 10771 29 10057 17 6907
6405 6.4666054589125945 0.6303135090818881 2.7323364745316745 91 117 115 1.1559141380540521 7 10775 8 6947 29 10060 23 6222 21 10137 22 6653 5 7057 4 6452 17 7914 18 11265
6406 6.8248489476388787 0.64870731914612456 2.5736681688484859 79 104 100 0.71208173974723921 7 10734 29 10062 5 7830 4 6455
6407 6.994794349559494 0.61661949082511769 2.4845248347101458 60 68 55 0.96612885581058972 7 10735 29 10065 5 7831 4 6392
6408 6.964977439537706 0.64682126659087924 2.4944453015744266 90 110 111 0.72329216557007991 7 10737 29 10067 5 7833 4 6456 17 6917
6409 7.1145922357675211 0.65740669790130601 2.4146532413316679 82 97 95 0.4994975405853766 7 10739 29 10071 4 6396 17 6918 18 10917
6410 4.0458513742942763 0.44669992184729046 4.1059724103508026 51 59 49 1.544122807615403 7 10781 29 10079 6 8738 28 6830
6411 4.1446952967047723 0.36265978658217862 3.8758159007499478 78 102 106 1.4999251139952736 7 10762 17 7941 3 6760
6412 4.2948478342190963 0.43013346434141098 3.9201412640573805 99 132 141 0.42378227905223426 7 10784 29 10082 5 7040 4 6439
6414 4.5143548502184947 0.44146574712825193 3.8121433175866519 103 135 142 0.66437778219697841 7 10767 29 10085 30 7769 5 7045 4 6446
6415 4.7159606265626826 0.45020284957986118 3.7016078528703007 107 135 146 0.29493482395455173 7 10770 29 10086 5 7048 4 6449
6417 2.9188611963510769 0.42805683555050522 4.6515194753744282 113 144 151 0.88429616157474589 7 10848 29 10129 28 6212 8 2898
6420 3.1821090050376482 0.73467832898883612 8.9737794349080886 8 15 12 2.1953510907442584 7 11399 29 10135 6 7262
6421 2.2875044501070816 0.37532078328063351 4.9743227554284175 97 117 117 0.80403873275389615 7 10823 29 10139 6 7266 25 7780
6422 2.4468720498651235 0.92526503838176 4.9637801571207936 23 33 25 1.0782263003150403 7 11440 29 10164 6 7369
6423 2.6275196277068842 0.99685013223646779 4.8488188418260032 64 83 79 1.0226522390722053 7 11445 29 10169 6 8127
6424 2.7316926002544095 0.9600894217267173 4.7944539358490088 73 95 93 0.37422678187363839 7 11446 29 10170 6 8129
6425 2.6051451122291214 1.3539595768488228 4.9031244894108381 49 57 48 1.2104845813139633 7 10143 29 10181 30 6376
6426 3.3211869085020242 -2.3603864184111893 4.6645074968029592 59 68 65 0.52009857861964259 7 10897 29 10207 6 8216
6427 4.4255607894224944 -2.3551813178037451 4.0605194266346016 68 74 61 1.2856761459058663 7 10916 29 10218 6 8823
6428 4.9970212677665957 -2.336606948111378 3.7910807485209732 69 68 47 0.88118725931788155 7 10918 29 10221 5 6292 4 7157 16 5658
6429 4.4962031811027243 -2.2226983922945878 4.0216616963940197 54 63 48 0.93013430981072864 7 10917 29 10226 6 8833 30 7872 5 7269 4 7154 3 8937 15 1637
6430 4.7708546255845059 -2.1711997564202612 3.9166766639657595 27 33 31 1.2188351322235447 7 10926 29 10227 6 9343 4 8045 16 6805 15 5356 4 8698
6431 7.2517026289877622 -2.2329971732219209 2.5481365847739683 21 25 18 1.6923943089966424 7 10220 29 10243 4 5709 3 7896 17 7533 15 1678
6432 7.798855585257277 -2.2180598793939152 2.2860010577032881 30 31 26 0.71950633014689469 7 10221 29 10244 4 7201 7 10958 15 1680
6433 7.535106508864704 -2.0411874364923066 2.4305619338933271 41 50 41 0.65164709521134123 7 10961 29 10266 5 7308 15 1685
6434 8.065962025276864 -2.1278391994152335 2.1528869846656509 23 26 21 1.4725828695277305 7 10964 29 10268 5 8058 4 7203 15 1688 3 5949
6435 3.5154220355220196 -3.0157072827485862 9.8606964341757521 179 212 226 1.1497646786959652 7 11531 29 10272 30 5632 6 5088 5 6387 31 5560
6436 3.6483349011008159 -3.0190841742038854 9.7730694472936239 153 180 187 2.1078283094349008 7 10972 29 10273 6 7610 30 6652 5 7332 31 6612 16 5846
6437 2.7061105146639663 -1.4437016058731369 4.5419371431863516 123 145 124 0.94404480336866159 7 11018 29 10283 6 7627 5 6431 25 9191 28 6432
6438 3.0993289957566423 -1.4225467776679825 4.3389540205601858 134 154 145 0.92261700482544651 7 11020 21 8779 29 10292 24 7985 5 6434
6439 3.0850712564811809 -1.4002482089801269 4.3453140355892179 18 23 18 0.94727583348617872 7 11021 29 10293 5 4957
6440 3.3884494807500891 -1.4986855989051702 4.168884058063087 7 11 6 0.0023383088844663139 21 9805 29 10298
6441 3.6964194534286769 -1.4682435824448572 4.0112798195663286 118 140 140 0.35705893338279043 21 9821 29 10305
6442 3.9386703665636369 -1.4582438483246198 3.8826615738181829 107 132 129 0.57216668456887698 7 11034 29 10314 5 6445 4 5777 3 7942
6443 4.021281157302667 -1.4834928765368052 3.8462623965837954 10 15 12 0.7257945718997505 7 11585 29 10315 6 8895 5 7430 30 7964 4 7262 16 5922 17 8866 3 9001 15 1843
6444 4.2950972984493356 -1.4788701903136565 3.6965837166819631 7 7 4 1.430514809093034 7 10313 29 10317 6 8899 16 5926
6445 4.4251014262411168 -1.4553606518880586 3.6376361200346956 99 114 107 0.42702917315621125 7 11039 29 10321 30 7971
6446 4.4734545191957897 -1.457052796109884 3.6075513414907583 93 113 100 0.9240144243329349 7 11041 29 10322 4 7273 3 7954 17 8337
6447 4.4668925386882279 -1.3961343167722309 3.6124757561894638 107 122 112 0.39728735683476613 7 11044 29 10344 4 7330
6448 4.9339407184061059 -1.3360617702735966 3.3852120530330687 102 130 116 0.56389349119038668 7 11049 29 10350 5 6471 4 5851 16 5945
6449 5.0660969159757574 -1.3082505988374553 3.3272523510901495 2 8 4 0.45130348822746091 7 11063 29 10381 4 7337 3 8014
6450 6.0968263320509761 -1.3008097950186535 2.6638479238900059 28 35 27 0.89438772557321933 7 11072 29 10391 5 8156 4 7348 16 6993 15 1872
6451 7.2701993512985004 -1.1927899790969745 2.0386657174965004 55 67 67 0.80505333082443242 7 11079 29 10395 5 7504 4 7359
6452 7.4133333500352148 -1.1809890602097184 1.9630421164615457 53 65 63 0.72277919958924342 7 10389 29 10396 5 7509 4 5902
6454 6.2203662492209935 -1.1292647470712078 2.6005293234873985 80 89 72 1.3762435610229462 7 11074 29 10431 5 7502 4 7354 17 8375
6455 6.2008819973361611 -1.1100200818355563 2.6267019995146486 113 140 142 0.52027226079693767 7 10377 24 8634 29 10432 5 7501 4 5890 3 8070 17 7643 15 2024
6456 7.5820179380666408 -1.1112689777972204 1.8604859910114733 42 52 52 0.64921790707510807 7 11080 29 10435 5 7511 4 7363
6457 2.3531577555063055 -0.84577211109146733 4.8193915885143532 98 126 129 0.61082789835612661 7 11634 29 10448 6 7820 28 5908
6459 3.1682101741858766 -1.4367685106181947 8.9805381780926012 49 83 95 0.89775854415972944 7 11629 29 10465 6 7809 5 6603
6460 4.5692553232123228 -0.70160362302083512 3.7188211777527949 16 26 25 1.102998376454067 9 7637 29 10488 30 8129 4 7449 17 7710
6461 5.2193063089560052 -0.4717703775289217 3.3951746685840982 10 20 20 1.1900643104442306 22 7146 29 10509 16 5015
6463 7.08419907741707 -0.20079390957566867 2.1969674027919606 16 22 20 1.6664830196980156 7 11657 29 10535 5 8320 4 7484 3 9678 15 4418 18 11460
6464 2.8492631986726291 -0.26994635053046606 4.6512686008657198 82 96 80 0.52716234815967211 7 11298 29 10540 28 6073 6 7973 25 8754
6465 2.915120447851101 -0.26737372244624402 4.6237755455663789 81 93 76 0.77621494795737678 7 11299 29 10542 6 7975 29 9879 5 6849 30 6958 4 6192 3 8292 17 8529
6466 3.9359609078787967 -0.23531058336905619 4.0705857554332274 5 5 5 0.56766333349474929 7 11237 29 10558 6 9190
6468 4.0211032129716324 -0.23594870897062992 4.0376070673407041 2 4 2 1.5480865442168275 7 11236 29 10560 6 9194 28 7535 30 8250 5 7664 16 6346
6469 4.2273879177233455 -0.2635668872073777 3.8406059649775903 14 20 18 0.021870213176784933 7 11242 29 10561
6471 4.4402628067886258 -0.180097361950907 3.7568695988008844 93 121 99 0.52472752936315337 7 11252 29 10567 30 8253 5 7669 4 7545
6472 4.8496338051958539 -0.15710760399854323 3.5417770922920839 115 144 144 0.32296400666714142 7 11261 29 10575 5 7671 4 7551
6475 5.1952336308267091 -0.19170387420136933 3.3582511150645642 58 82 82 0.5817813669707721 7 11200 29 10579 4 7557 15 2370 3 8202
6476 5.1972785769480074 -0.14289339918580024 3.3646755078952788 117 147 149 0.38139757534922741 7 11265 29 10580 4 7558 5 7675 3 8348 15 2372
6477 5.5816801479871252 -0.12776519203046888 3.1709869901440468 81 112 114 0.38328585834064693 7 11272 29 10584 5 7677 4 7569 17 7830 3 8213 15 2380
6478 6.2650012904234433 -0.0026586827994293898 2.7325824469123337 106 132 136 0.6456405680286933 7 11277 29 10588 5 7735 4 7576 15 2400 5 8407
6479 2.3825909729548354 -0.17875722018350904 4.9305738398280221 81 92 76 1.1411744855050783 7 11341 29 10597 6 7996 8 2491 16 3882
6480 2.6174507769318036 -0.20227761655318136 4.7864796404872196 9 11 10 0.90822952884916541 21 7664 29 10599 30 7606 4 7607 17 9036
6481 2.6530225555723597 -0.19982537349445331 4.765823312659041 7 12 10 0.50178167201490376 7 11292 29 10601 6 7998 28 6091 21 9143
6487 5.1294966253952046 -0.061443541899754595 3.40190413536794 47 68 53 0.87009090082026164 7 11266 29 10626 5 7728 4 7562 15 2365
6488 6.1163567338820934 0.031383573797593677 2.8073104526423425 104 130 129 0.9158879242946405 7 11276 29 10635 5 7734 4 6283 29 9995 15 2402
6489 6.4095733425063424 0.068135778854609946 2.6675568457957786 104 132 146 1.2946154622847401 7 11282 29 10639 5 7743 24 8785 23 6838 8 7749 21 10754 22 7266 4 6285 7 10625 3 6530
6490 6.5893352220970893 0.064835617654753569 2.606425570446163 102 133 144 0.92282933888820595 7 11283 29 10642 5 8410 17 9003 3 9197 15 4534
6491 2.3110889243822932 -0.045643435356251996 4.9967090997205563 69 73 46 0.8260054396926515 9 2274 29 10645 6 7212 8 2697 28 5235 25 7643
6492 5.9992509617045551 0.3634970924310556 2.8799531817224207 5 9 8 1.0317270294665 7 11721 29 10656 4 8345 17 8576 3 9271
6493 6.4922022446410512 0.44708229600249727 2.7062823404871166 76 96 94 1.1144631152212563 24 8289 29 10658 4 7649
6494 2.2615946421284794 0.041723782434674284 5.0060215878241463 113 131 119 0.44816632458482181 7 11386 29 10661 6 7211 28 5237
6495 4.8280989741396949 0.38499713276272474 3.6378870578588707 32 38 36 1.4117569153700518 7 10769 29 10678 4 7701 3 6647
6496 6.0061207472678664 0.45558308219213767 3.1741028857931584 4 6 1 1.2669070420746587 7 11719 29 10679 5 7821 17 8588 3 9270
6497 6.4498971826112621 0.56875052524579339 2.765386472005547 79 101 98 0.82029210140997588 7 11357 29 10686 5 7826 4 7711
6498 6.5089059595800869 0.63786697829034011 2.7199718041965042 94 116 116 0.49163943730332793 7 11379 29 10689 5 7828 4 7715
6499 7.1966088072027752 0.60732958665819159 2.3790910378963392 57 73 68 0.95008297717974854 7 11362 29 10691 5 8481 4 6394 5 7835
6500 7.1387769043188589 0.63654080673159918 2.3919329318389542 41 48 40 0.89533232596177004 7 11363 29 10692 5 8482 4 7653 17 7917
6501 7.1416186218048132 0.6376624190410638 2.3930984133350517 41 48 40 0.56909913807793899 7 11364 29 10693 5 8483
6502 3.083725584208806 0.5154615971997758 8.6286980452724613 18 23 16 1.6736335439437253 7 11747 29 10700 6 8065
6503 2.9874856303031794 0.43109477646395372 4.5596627830808574 86 96 69 1.6886671576474399 7 10808 29 10712 28 6214 24 7574
6504 3.161304054653169 0.76471771196583704 8.8765079331243619 64 78 78 1.3697454205216888 7 11400 29 10717 6 8080
6505 2.5886646960929656 0.94099165148323149 4.9206876211545127 33 40 37 1.5322477355466484 7 11776 29 10736 6 8771
6506 2.6036710491627075 0.96825633154521573 4.8439999814752968 28 36 25 1.0863790001737919 7 11777 29 10738 6 8772
6507 2.4048894215553998 1.0833970328177034 4.951867101883547 65 91 104 0.7042429404365429 7 11779 29 10742 17 9434 3 9879
6508 2.4522978323427123 1.0195750161709096 4.9465847552524007 94 108 109 1.7726226253208774 7 11781 29 10745
6509 4.0565362047642584 -2.3189170747146659 4.2993422877909104 72 75 60 0.37265074392097236 7 11478 29 10789 6 9338
6510 4.4107924757986572 -2.280756966169422 4.0709390615998657 67 81 68 1.4298146709312711 7 11479 29 10792 6 9341 5 7267 4 8041 15 1547
6511 4.4175037510927853 -2.2820781362873146 4.0763048481448747 67 81 68 1.16841786211924 7 11480 29 10793 5 7266 4 8040 3 8933 15 1546
6512 4.5086194414919474 -2.3664718851094877 4.0618487277730528 84 96 84 0.39994845772721371 7 11481 29 10794 6 8824
6513 4.6829639627736475 -2.3915862520889291 3.912008335778931 61 70 58 1.3868479179542785 7 11484 29 10795 6 9333 30 8706
6514 4.6611522728775778 -2.3784008427461578 3.8937208128318517 61 70 58 0.74152546525345941 7 11485 29 10796 6 9334
6515 4.8160374558067467 -2.2698244691221272 3.8591489744226797 58 69 63 1.1473363946749098 7 11488 29 10803 6 9335 4 7156
6516 3.9284822528385428 -1.7451020865236713 3.643235554279002 28 35 28 1.0078457877316447 7 10947 29 10809 4 8062 5 8030 17 8817 3 8953
6517 5.375536829215763 -2.2312114217296748 3.7255944389514184 52 59 51 0.32522981255972272 29 10815 16 6813
6518 5.9314756655447569 -2.2274353640645637 3.2996645203995678 113 217 156 1.3602414015432294 7 11510 29 10819 5 8016 4 8049 15 4096
6519 6.1581532895840798 -2.2600218574903601 3.1843147426959026 120 174 153 1.540842010765884 7 10931 29 10820 5 8017 4 8050
6520 5.947682280819361 -2.088163137833587 3.2404350093239183 24 35 19 0.75361673777763682 7 11512 29 10821 5 8042 4 8069 17 8822 3 9540
6521 2.2190712415000706 -1.5720880729554729 4.786331633530553 9 10 9 1.8237799643030137 7 11520 29 10828 28 5605 6 7611 25 8309
6523 2.7700707975967971 -1.5309753994980839 4.4926009185531441 9 11 10 1.1394427133887859 21 9797 29 10836 8 5477 6 8328 30 7297 28 6400 5 7356 25 9696 4 8094
6524 2.9119021107966301 -1.520712047849198 4.4094642801442063 12 12 10 1.2461195693292253 7 11542 29 10840 6 8332 30 7925 28 6935 5 7359 25 9700 4 8100 16 5879 3 9555 15 1808
6525 4.0320636024411831 -1.5837618814608405 3.5982896127379869 33 39 37 1.4142165973765668 7 11010 29 10841 30 7885 5 6407 4 7264 3 7948
6526 5.8359157000682274 -1.6516740359581428 2.6471083102649704 38 43 39 0.63046495869747687 7 11011 29 10843 5 8102 4 8127 3 9005 15 1677 15 4105
6527 5.8357980891223189 -1.6516728992032064 2.6471139199835374 38 43 39 0.79036381038984627 7 11012 29 10844 5 8103 4 8128 15 4106
6528 6.9666468582675671 -2.0573421970579497 2.7349093412477314 23 24 19 1.3665383629568073 7 11523 29 10846 5 8049 4 7197 15 4103
6529 7.3490999823236969 -2.1391477359751443 2.5006366219315268 25 27 22 1.4882529789816303 7 11526 29 10848 5 8635 4 8078 16 8007 15 4107
6530 7.4502294789690229 -2.1399725190081171 2.4395954873627756 23 25 20 1.317989554007118 7 10956 29 10850 5 8020 4 7199 15 4108 16 7516
6531 7.4502294789690229 -2.1399725190081171 2.4395954873627756 23 25 20 1.317989554007118 7 10957 29 10851 5 8021 4 7200 16 7517 15 4109
6532 7.7210697885749546 -2.1447172677136677 2.3517262793346854 21 24 17 1.5459799715515217 7 11527 29 10852 4 8079 3 8973 15 4110
6533 7.7832439226336279 -2.1343708413190887 2.281902727491639 21 22 16 0.77491933891541442 7 10959 29 10853 5 8054 15 4111
6534 7.9096674422610125 -2.0087465488524301 2.2350673618952337 13 16 13 1.1526980145507755 7 11528 29 10855 5 8652 4 8083 3 9009 15 4123
6535 8.1268073416576652 -2.1115989704158893 2.1001396622693571 17 20 13 0.84586439112149103 7 10967 29 10856 5 8059 4 7207 15 4120
6536 6.0897556160963706 -1.4677874765968133 1.3545584031534108 103 129 130 1.4332245283878235 7 10248 29 10859 5 8062 4 5798 17 7560 3 7970 15 1693 18 11433
6537 2.9806986209189388 -1.5188434816235059 4.3839968665750968 11 13 10 1.3453517452953021 7 11543 29 10878 6 8877 30 7927 5 7379 4 8102 16 5880
6539 3.1732536764683377 -1.5058894326025987 4.2822170251318443 7 17 9 0.14643817415683438 7 11545 29 10881 4 8106
6540 3.9622301432096418 -1.4790875327002444 3.8666855624643484 1 6 2 0.75212685754628872 7 11584 29 10896 5 7422 4 8126 16 5921 15 1842
6541 4.2028677140269242 -1.4460825894259568 3.712938863473414 61 71 62 2.4963867946883056 7 11588 29 10898 6 9641
6542 5.8519037205880649 -1.5780977203233213 2.6616025161909036 49 56 50 0.78332264397719931 7 11014 29 10901 5 8682 4 8129 3 9007 15 4240
6543 5.8286106685026331 -1.4950956198242165 2.6700165058787491 43 52 53 1.6254006719213085 7 11554 29 10904 5 8684 4 8131 16 8035 15 5433 3 9578
6544 3.5396367001133031 -1.481203221297414 4.5048057294806911 0 0 0 0.39734091946961425 7 11564 22 7023
6545 3.394322505516016 -1.3862539963563707 4.187950100419946 11 16 12 1.0333522717335935 7 11567 29 10910 6 8948 5 7396 8 6586
6547 4.8119821047353302 -1.3206747648700945 3.4626375031663112 12 18 14 0.75282721596440905 7 11061 29 10930 5 7443 4 7333 17 8357 3 8002 15 1860
6548 6.4221504342825115 -1.3995062739571389 2.5020691093009013 11 16 35 0.30468544516829738 7 11593 29 10932 15 1876
6549 7.0687854023714687 -1.4706418324667978 2.0083754722564242 43 54 48 2.0331333002245424 7 11595 29 10933 5 8686 18 11669
6550 7.0681400133717371 -1.4707048461443126 2.0085376516069626 43 54 48 1.9131433246031997 7 11594 29 10934 5 8685 15 4247 18 11670
6551 5.4857293326108536 -1.0022886518479723 3.1364378682515559 1 5 4 1.3190894681463829 7 11616 4 7395
6552 2.2661489227461802 -0.85132986029674607 4.8595904081227239 101 125 129 0.58332607107736523 8 4383 29 10971 6 7813 7 11138 28 5904 25 8558
6553 2.3640128923869055 -0.93207809180598655 4.7587493599899142 5 5 4 2.0670161831325715 7 11888 29 10973 6 9025 28 6532
6554 2.3550456204944017 -0.87373586317650864 4.7516214520895526 29 39 38 1.3793954747694048 7 11636 29 10974 6 8462 4 8827 16 6124
6555 2.6368536768074655 -0.90903823859979749 4.5804853249165332 4 9 5 0.77740240216122092 21 9897 29 10976 6 8434 28 7030 5 7567 8 5636 25 9317 25 9835 4 7431 3 9627 15 1966
6556 3.4393283068709666 -0.88591034407814018 4.1258775279117303 57 96 153 1.109828056488724 7 11625 29 10979 6 9028 4 7441 16 4869
6557 3.1549639946555801 -1.5276597490957515 8.8925275798953116 36 64 69 0.86261634932522557 7 11627 29 10986 6 7807
6558 3.1043552776819583 -0.77499554815770799 4.3600273701353407 10 12 9 0.8269658487234367 7 11643 29 10997 6 8475 28 7083 30 8126 5 7576 4 8244 3 9650 15 2144
6559 6.0752573852998317 -0.64866285618807096 2.7502486674497355 118 152 161 0.36526987362157903 7 11649 29 11001 5 8279 4 7459 15 2181
6560 6.1757306802907612 -0.56503700841166071 2.7290686075861652 116 150 159 0.60858418790270208 7 11175 29 11009 5 8280 4 7460 15 2184
6561 7.1210495144219053 -0.24428345168670662 2.1921201355713338 65 81 80 1.6926393947638072 7 11935 29 11022 5 8791 4 8283 3 9677 15 4417
6562 3.2636906463695743 -0.27261753235017488 4.4386989277942144 3 3 1 0.13721535152074885 22 7211 23 7258 29 11027
6563 4.2606431440598751 -0.23872177270485934 3.8359769776906054 67 84 68 0.41618819545550217 7 11679 29 11029 16 6352
6564 4.4827686580797277 -0.1776582894499289 3.7285361635412988 96 122 109 0.16104117952179542 7 11681 29 11031
6565 4.9855149650258976 -0.15275763666495346 3.4706993850130639 119 149 146 0.56339349659757343 7 11682 29 11033 5 8350 4 8314 15 4515 3 9190 17 8998
6566 5.13287981523822 -0.14483947825061852 3.3970515560020003 118 148 150 0.34275718157246893 7 11683 29 11035 5 8354 4 8316 3 9192
6567 5.3126345635031011 -0.13776545549523314 3.3071233244205578 91 126 128 0.55234708715330427 7 11684 29 11038 5 8355 17 8515 3 8350 15 4520
6568 5.6998300834545361 -0.12452320278342718 3.0988267137027465 72 111 118 0.82469628879914603 7 11673 24 9170 29 11041 5 8359 4 7571 17 8518 3 8215
6569 5.9382228733728617 -0.19290951007001456 2.9605976805031604 21 26 22 0.72539083446620634 7 11674 29 11042 5 8360 4 8275 17 8474 3 9125 15 4525
6570 6.1139532264499659 -0.0072661123103415284 2.8069553799777109 103 131 133 0.92850312983224703 7 11686 29 11045 5 8406 4 7575 17 7839 3 8360 15 4527
6571 6.0720932085028911 0.036825232096245872 1.4075240397180862 88 113 110 1.52008442159201 7 11209 29 11047 5 8367 4 7489 17 8485 3 8232 18 11465
6574 2.4133604093133543 0.054567476570117159 4.9479880308104747 103 111 98 0.45215775820770326 7 11737 29 11063 6 8676 5 7812
6577 6.6750936079341443 0.6439499767437844 2.6587952715970484 84 107 107 0.92891742820555234 7 11358 29 11080 5 8480 4 7716 17 7915
6578 2.2602791644119073 0.094951193922552329 5.0370436467927933 35 47 45 1.4181075858920116 7 11736 29 11083 6 8679 28 6763
6579 2.9243666983266996 0.42380540313531406 4.6470881154192103 109 142 151 0.71328715688354261 7 11768 29 11119 28 7250 16 5336
6580 2.9431631363916773 0.34017845016913417 4.6221698623987049 7 7 7 0.87314758321015185 8 6129 21 10114 24 9228 29 11120 6 8705 28 6790 30 7756 5 7871 25 10041 4 8425 17 9361 3 9809 15 2751
6581 3.9948072090373374 0.59799722272836098 4.0502892037652085 100 122 116 1.0633630043815971 7 11756 29 11121 6 9586
6582 3.1703030303642756 0.66242562136729144 8.795795725129377 1 2 1 0.96094138565146336 7 11762 29 11133 6 8079
6583 2.5616585446136542 0.43086905741387405 4.831051450352061 5 6 3 0.66236079832798966 7 11764 29 11137 6 8726
6584 2.3635251768406449 1.0807977690230637 4.9664762438506065 67 95 107 1.9241276215105714 7 11786 29 11150 30 7811 5 7910 4 8565
6585 2.3635251768406449 1.0807977690230637 4.9664762438506065 67 95 107 1.9241276215105714 7 11787 29 11151 30 7812 5 7911 4 8564
6586 2.5117110054635421 1.2015742392714432 4.9284597550054698 75 101 114 2.3817802648013671 7 11788 29 11154 6 9307 5 8566 16 6578 17 9436 15 2863
6587 2.5457894500081335 1.2015227547783374 4.8962474497185919 61 87 99 1.3592939494191354 7 11789 29 11156 30 7815 6 8785 4 8585 16 5426 17 9437 3 9881 15 2866
6588 2.5458503899056333 1.2017303424000796 4.8962892501666078 61 87 99 1.3562713612552333 7 11790 29 11157 6 8784 30 7814 4 8586 16 5427 17 9438 15 2865
6590 4.802021952804421 -2.2775175323839849 3.9164476760717557 35 42 35 1.0157417592919273 7 11821 29 11176 5 8014 4 8043 16 6804
6591 5.9820998760070223 -2.1079651016463634 3.2052959482686907 103 116 106 0.84199336585594542 7 11829 29 11181 5 8649 16 8004 15 5363
6592 3.948995450316465 -1.5943557072132546 3.6894037024403232 32 38 36 1.1443408210043517 7 11847 29 11188 5 8681 4 8750 17 9486 3 9985 15 4233
6593 6.0416330904065862 -1.410920740565949 1.2027311858726188 96 114 116 1.4477818397670865 7 10969 29 11194 5 8659 4 7283 17 8349 3 9013 17 8874 15 4128 18 11434
6594 2.4181886154053678 -1.4409518262423311 4.6793852046293063 11 15 14 1.0602219896793839 7 11838 29 11205 5 8121
6595 2.6264464336192588 -1.4251923093824057 4.5971969761724729 6 6 6 1.3987037575902928 7 11853 29 11210 6 8932 28 6962 25 9739
6596 2.7287830636535815 -1.4195673227449754 4.5399701616856207 9 10 8 1.4714237125759742 7 11855 29 11212 6 8933 28 6964 30 8439 25 9740 15 4204
6597 3.0126281580891736 -1.4884163630164511 4.369561181447474 95 117 104 1.6521964530934692 29 11220 6 9396 28 7323 30 8445 9 6879 5 8132 21 11052 7 11841 25 10158 4 8736 16 6931 15 4209
6598 3.0110021187234364 -1.4873576662452002 4.3679480834759774 95 117 104 1.8181864934193555 7 11842 29 11221 6 9397 28 7324 30 8446 5 8133 4 8737 29 11518 16 6930 15 4210
6599 3.0855974318293065 -1.4856158594554836 4.3354783534942678 105 122 109 1.2279939580353552 7 11844 29 11223 6 9403 8 7198 30 8448 5 8135 4 8742 16 6934 3 9976 15 4212
6601 6.5529202371168793 -1.5519438745920462 2.3008673439962095 3 3 1 1.4700124636185457 24 9053 29 11237 17 8885
6602 4.82885056867537 -1.3995538105363716 3.4014920153991044 5 7 6 1.8097492756597746 7 11871 29 11243 5 8712 16 7623 17 9497
6603 7.5969104622012988 -1.2442563873925103 1.8676287445547686 4 9 14 1.4911497888075438 7 11880 29 11258 5 8713 4 8793 17 8380 3 9599 15 6221
6604 2.2839312583970557 -0.94330265203167363 4.8415829068521967 2 5 4 1.1808254466213739 7 11886 29 11263 6 8430 28 7025 25 9820 8 6692
6605 2.612037344116005 -0.88367338287532715 4.5964516614051556 127 156 167 0.83699503654576335 21 10600 29 11274 5 8246 4 8835 3 10034 17 9696
6606 3.1770094957664461 -0.83118789217314482 4.3202827963531529 87 98 93 0.99448000046816654 7 11924 29 11283 6 9479 28 7437 25 10298
6607 3.3566031021039708 -0.83138811906122267 4.2163787430667625 7 13 10 1.4326455907909159 7 12168 8 7658 29 11284 6 9704 25 10858
6608 5.8626154403079864 -0.87694461671956359 2.7693169135084732 42 53 49 1.1413475883306261 7 11900 29 11285 5 8744 4 8205 3 9618 17 8928 15 5474
6609 2.2867618015805107 -0.83049542533605702 4.8606055401563246 3 4 1 1.1038416730982175 8 5729 29 11296 6 9053 28 6590
6610 2.798724607553809 -0.78839852217018169 4.52394037367067 4 5 4 0.8460314284157654 7 11917 29 11302 6 9071 28 7080 25 9842
6611 5.7647281179649248 -0.63461189463272638 3.0776171755613264 86 86 60 0.68506626947040772 7 11928 29 11311 4 8863 15 5521
6612 5.8184652635757113 -0.41298926673817493 3.0918858430872227 131 152 133 1.19284987614969 7 11934 9 8645 29 11316 5 8789 4 8881 17 9275 3 10086 15 5523
6614 3.052827752107719 -0.486888399712533 4.5258290348930705 6 7 5 0.41330813107381181 21 10642 3 10077
6616 4.458057959610187 -0.43899825055929337 3.8263645884207396 26 43 33 1.2939163732265178 8 7353 29 11334 5 8784 16 7755 15 5515
6617 5.8705667409599158 -0.25771244370057594 2.8574321225928374 37 43 39 0.39699773649807302 7 11949 29 11339 15 5525
6618 5.8705667409599158 -0.25771244370057594 2.8574321225928374 37 43 39 0.39699773649807302 7 11950 29 11340 15 5526
6619 5.9221822150002303 -0.24044960569617652 2.8221424009200602 95 122 122 1.5338515434297468 7 11951 29 11341 4 8276 3 9128
6620 2.5787670977810926 -0.31293974204542468 4.8096669269632253 7 7 7 1.6588512096850896 21 10655 28 7505 30 9043 7 12369 5 9402 25 9929 16 7791 15 6349 15 6954
6621 2.7913868671650119 -0.30066455005799519 4.6870422203116862 7 8 7 0.68424581707439092 21 11119 29 11351 28 7506 25 10696
6622 6.1498979304183541 -0.06537410460005455 2.7927641146072499 23 41 29 1.2232303526927586 7 11955 29 11366 5 8819 4 8319 4 8907 3 8224 17 7837 15 4528
6623 6.1495325913140899 -0.065272063978675229 2.7928809242158055 23 41 29 1.2670074235602815 7 11956 29 11367 5 8820 4 8320 3 8225 17 7836 15 4529
6624 6.3363452028978777 -0.049430691887540582 2.702622836066876 104 40 12 1.3390096903611677 7 11958 29 11370 5 9151 4 8908 17 9000 3 9674 15 5590 18 11468
6626 2.3569157851111444 -0.18917769481543312 4.9462827303121655 60 62 39 1.1848250082271812 7 12208 29 11375 6 9165 28 7139 25 9955
6627 2.4975215154817363 -0.18569656441519061 4.862405576241474 64 67 40 0.82806065617709257 8 6832 29 11377 6 9170 28 7141 4 8922 16 5272 15 2317
6628 2.861925157127867 -0.21081980968019715 4.6542650549997244 109 126 107 0.79883260032451275 8 6838 21 11135 29 11380 6 9545 28 7516 30 8634 25 10367
6629 2.4975598535256704 -0.1362158653453327 4.8661025034385244 71 69 44 1.4449175744920537 21 10741 29 11385 30 8268 15 2318
6631 6.9256918246131027 0.5741381385012212 2.5188880168326504 69 81 77 0.96151224566586646 7 11971 29 11394 5 9192 4 8935
6632 7.2072421956557209 0.68927325861492439 2.3692125316141448 36 46 47 0.62996431180405965 7 11973 29 11395 5 8891
6633 4.5318824773743982 0.42871203993328988 3.8041486267143121 90 121 124 0.71812724542170681 7 11977 29 11401 30 8930 5 8882 4 8957
6634 4.5978374518766705 0.43217048503168454 3.7604749921104537 107 136 140 0.81958118467337937 7 11978 29 11402 30 8931 5 8884 4 8959
6635 4.8094989586045225 0.45140763661080507 3.651894932892235 101 133 144 0.65949389371573275 7 11980 29 11403 5 8886 4 8961 17 9059 3 9774
6636 4.8073174615702357 0.45059127321631381 3.6504067770320567 101 133 144 0.4049256910510417 7 11979 29 11404 5 8887 4 8962
6637 2.5420025523274963 0.40565168024455667 4.8484553788689464 118 146 153 1.381832949465156 7 12023 29 11423 28 7246 6 9256 25 10061
6638 2.9699537317989888 0.46225243420707918 4.6017121909632559 6 8 7 1.2983684132293232 24 9230 29 11427 28 7571 25 10072
6639 2.2505489169091355 0.38521144933568791 4.9876768052239235 95 118 119 1.0792581529624852 7 12249 29 11442
6640 2.3958562266262411 0.394967784364532 4.9167331506577696 119 142 148 1.2128414344290648 21 10814 29 11445 28 7227 6 9252 5 8510 30 8299 25 10029 8 6907 4 9031 16 6474 15 4700
6641 2.5166586037150331 0.95584619481299615 4.8982932762157771 25 48 42 0.90896743504745958 7 12266 29 11460 5 8553 30 8670 4 9390
6642 2.5145600947857689 1.0583039032261257 4.9170255288275788 69 89 88 1.6506225199155911 7 12043 29 11464 6 9305 30 8339 5 8565 4 9089 16 7410 17 9797 3 10437 15 4780
6643 2.6244917852353336 1.0734847611601792 4.8430954510456958 112 135 149 1.7707688300331603 7 12044 29 11465 6 9595 30 8684 5 8936 4 9092 16 7414 17 9644 3 10209 15 4745
6644 2.5635020498252854 1.1680453881446691 4.8820056188550565 110 136 149 1.501513270912711 7 12282 29 11469 6 9598 30 8352 5 8939 4 9090 16 7419 3 10210 15 4788
6645 4.0792912576190039 -2.1999648921269239 4.2956906660631153 39 49 38 1.5341742043120026 7 12074 29 11481 6 9822 5 8626 4 9167 16 7984 15 5355
6646 5.0280661279063477 -2.3092833468750631 3.7511251441199969 44 38 14 1.1459010572686479 7 11822 29 11482 5 8630
6647 6.0419730940167273 -1.4538482904851591 1.2212385239106944 21 26 22 1.1776742380384264 7 11835 29 11492 5 9011 4 8755 17 9224 3 9584 15 5370 18 11807
6648 4.0099687255721248 -1.6162718080448009 3.5982685651305788 77 94 93 0.56482127660847525 7 12084 30 8967
6649 2.3658475009541888 -1.4386482502907258 4.7207105918692278 6 6 6 0.39711905506552175 7 12106 29 11508 16 6920
6650 2.4674955828046907 -1.4360094771243377 4.6731283258360703 9 13 12 2.002705834434535 7 12107 29 11510 28 7360
6651 2.6677770006146648 -1.4140984670163699 4.5634016469587921 7 13 11 0.61518696705438491 7 12110 29 11512 16 6926 4 9199
6653 6.055043376116755 -1.4907730543692077 2.6362536876156906 13 21 18 0.622146995253826 29 11525 5 9034 15 5434
6654 7.4236375310851344 -1.4356677857017948 1.9432023892028536 4 4 4 1.6426677624592632 7 11874 29 11526 5 9064
6655 5.6514886470218757 -1.2678703197067913 3.0397144790982535 16 22 22 1.1638947189695292 7 12120 29 11536 5 9058 4 8785 3 10001 15 5431
6656 6.0393328877783574 -1.152951068000891 2.6732535144347507 82 96 70 1.7479381866453316 7 12122 29 11537 5 9082 4 8787
6657 6.5705133034565435 -1.2918632049633603 2.419258344279843 4 15 21 1.5900100387335609 7 12127 29 11538 4 9222 3 10009 17 9251 15 6215
6658 6.7290080198989299 -1.2875577342662694 2.3347595939165737 5 13 34 1.1965380616719705 7 12128 29 11539 4 9223 3 10010 15 6217
6660 7.102660119784777 -1.1826626880263957 2.0896710107194378 49 65 63 1.3775815343446234 7 12134 29 11543 5 9336 4 9229 15 6220
6662 5.7542666969710305 -0.96935568873863054 3.0354992507999032 113 145 146 1.5462927520961101 7 12331 4 9241 5 9088 3 10296 15 6886
6663 5.5469212922790332 -0.71256205206861001 3.1925315175951408 80 81 52 0.29804881620680862 7 12176 29 11568 5 9113 4 9261 3 10054 15 6293
6664 3.1430397648260651 -0.47116127931379775 4.335563205842587 7 11 10 0.94216885244789028 8 7348 21 11108 22 7653 24 9376 25 10350
6665 3.1881319778610999 -0.49902003003005929 4.3297840608369889 115 131 120 0.49325095882386788 7 12193 29 11576 6 9732
6666 5.1985109426057852 -0.43233557372702269 3.4106502579306328 129 148 118 0.41978301565597648 7 12182 29 11579 5 9128 4 9277 17 9548 3 10317 15 6292
6667 5.8695754486831921 -0.38153909662546043 3.0507547474041923 43 52 51 1.7248641400221665 29 11583 5 9132 4 9280 17 9276 3 10087 29 11338 15 5524
6668 5.9492666650144308 -0.39060822959187858 3.0786088976744495 43 52 51 2.0441792886026597 7 12185 29 11584 4 9281
6669 6.3896128366046172 -0.16772261720801965 2.6430628244024179 97 130 122 1.9050159671523867 8 8205 21 11355 23 7712 24 9562 29 11585 5 9152 4 9282 17 9570 3 10091 15 6966
6670 4.0909167340971599 0.16782281944379723 3.8390003300773152 50 64 60 1.7755073973008622 24 9578 29 11599 5 9178 4 9310 3 10352
6671 2.4038223646513175 0.0095040330788471253 4.9331866908545088 107 114 96 0.84062409130487992 7 12218 29 11601 6 9555 28 7546 30 8645 5 8445 4 9320 16 7328
6673 6.7777630782469771 0.6646123324049269 2.5898899759227012 53 73 76 0.48585638758066324 7 12215 29 11608 5 9435 4 9329
6674 6.9111547833363396 0.66460891402933986 2.5060432574614984 81 100 100 0.63503625515063022 7 12216 29 11609 4 9330
6675 4.2238451272819475 0.40753749858922561 3.9330389374882921 97 127 133 1.2960504326009836 7 12225 29 11613 6 10066
6676 4.3027016297972551 0.41332752442858312 3.9046348423196111 96 120 127 0.76511966527863351 7 12227 29 11614 6 9932
6677 4.3851576357524307 0.41624125938400053 3.8727094132337347 96 126 128 1.932895874573558 7 12220 29 11615 6 9933 30 9066 5 9188
6678 4.7400700697993763 0.43516972251030434 3.6980826609309272 103 133 131 0.53257893210728191 7 12221 8 8036 29 11616 21 11381 22 8187 5 9189 4 9327
6679 4.610756255491725 0.53079678082445092 0.92895253292035651 81 97 96 1.0482659470508509 7 12231 29 11617
6680 2.3364397370817813 0.28462577496478658 4.678186028382882 1 3 2 1.5979882969461281 7 12251 17 9768
6681 4.0169039958577359 0.50172617426829447 4.107924163201174 66 76 66 1.1777616615785262 7 12224 29 11623 6 9938
